-10.43783 75.60246 33.91562 
-12.82147 73.70377 32.70923 
9.043236 61.22779 -34.77736 
8.502031 61.79453 -29.04788 
9.306795 61.00546 -32.20624 
-7.703284 60.36085 -31.36441 
-10.22488 63.69995 -29.60306 
-8.558386 64.36827 -31.06242 
-9.190452 61.35485 -33.84447 
-8.411852 60.04364 -32.87199 
-7.575797 62.54165 -30.7302 
7.438202 63.82444 -31.24444 
20.65331 39.59183 20.55248 
21.70655 39.71761 12.80546 
21.33433 40.51366 17.76832 
20.69335 19.80938 15.1661 
20.26521 20.82824 17.66153 
-1.978581 51.79396 -13.81562 
-3.586525 53.16241 -14.77814 
-30.40331 14.84228 17.5063 
56.17739 65.32105 -28.05177 
58.21669 65.88593 -30.61792 
-9.915376 0.3840264 13.0589 
-43.4161 67.08347 -25.30381 
-47.13059 68.46626 -29.86391 
-13.24104 84.24866 20.99197 
-60.68427 66.49735 -31.44425 
-60.5853 65.24812 -31.66146 
-61.77589 61.75423 -30.76754 
-59.92368 65.38423 -31.17925 
61.38887 76.37627 -25.89762 
-51.08857 71.97775 -32.53566 
-52.67804 73.91927 -31.96327 
-49.90551 73.26224 -31.28737 
55.35083 74.27054 -35.03114 
53.89775 71.98267 -32.94784 
53.1988 74.45002 -31.27281 
55.12067 75.49998 -35.55307 
59.94994 75.7615 -34.65392 
61.43058 77.99117 -34.25879 
61.45052 78.31561 -32.03508 
62.55387 77.00991 -28.78566 
61.05737 76.30622 -32.66571 
-19.90387 21.65603 23.94898 
-21.73343 19.21747 21.90869 
-20.99364 16.43289 25.32644 
-17.31181 18.17118 24.37837 
57.06965 84.75313 -29.34752 
56.59331 86.08643 -31.07349 
10.70696 -4.288527 17.31975 
19.81723 -7.066085 20.28275 
19.40501 -9.939734 18.83827 
21.15623 -11.32281 19.45017 
23.153 -9.593848 20.67018 
32.59047 -21.28322 15.6763 
-46.74142 60.54428 -27.6326 
-46.19497 58.70665 -28.33897 
-48.14903 58.52516 -29.90848 
-59.50498 63.1558 -31.28183 
62.34029 68.52853 -31.25888 
59.12292 66.59523 -28.28823 
58.41868 66.70111 -29.15611 
6.272058 2.669362 7.707228 
7.497103 0.9184554 10.40094 
4.81191 2.575579 9.306455 
-32.94853 12.63441 17.718 
-35.3777 9.619833 16.64495 
-34.74235 8.632507 18.13524 
-32.20108 10.95863 20.67274 
-34.57738 12.7399 18.13421 
6.571405 71.29051 -32.74043 
6.076599 71.55234 -32.57387 
7.907893 72.66062 -31.17024 
5.860623 71.20073 -31.64025 
30.00355 65.53101 8.669937 
27.81323 67.08882 10.07466 
52.59135 85.8438 -31.164 
53.42115 84.92333 -31.42787 
-53.43652 54.8782 -29.81146 
-55.30212 54.29668 -29.07527 
-56.44764 55.42659 -30.76812 
1.221025 -0.31207 41.90109 
-16.4584 -4.953265 17.32334 
-15.21363 -5.339902 14.92635 
-13.22847 -2.572745 17.0461 
-13.37175 -0.4222865 18.72601 
-13.74084 -3.289811 17.54952 
-3.511322 22.47393 32.64704 
-7.368528 21.70695 31.96392 
-7.008155 20.60643 31.6277 
-2.001203 21.51464 30.19102 
-53.77981 52.19127 -19.0501 
-55.06064 52.9892 -21.57458 
8.064558 59.86378 -28.8325 
7.286777 59.1756 -28.67974 
6.726108 58.41891 -30.6676 
-61.76852 63.37007 -32.62532 
14.97176 -34.43003 26.42854 
13.76939 -37.41133 25.9101 
17.36535 -36.37052 28.32786 
-8.594774 33.93801 -7.388392 
-5.910783 35.44115 -9.59108 
-36.71026 -40.80319 9.801394 
-33.57117 -38.64331 7.290705 
-42.2116 68.62234 -27.64047 
-46.51667 70.0274 -30.65735 
-45.18651 71.49012 -29.36564 
-43.46924 69.8102 -26.82326 
-42.30635 67.77119 -24.00445 
-44.49984 69.69212 -28.60648 
9.070961 70.50957 -31.47072 
-27.12691 -16.92916 17.91128 
-26.31915 -20.7658 20.03422 
-59.39944 70.5593 -31.98475 
-59.29645 68.66378 -30.68904 
-59.95337 71.85254 -32.23124 
8.247286 71.2507 -30.39187 
-49.16216 72.56161 -34.0211 
-33.61805 -0.3054679 19.87105 
-35.18632 0.5204255 18.5141 
-34.34064 4.161235 20.39755 
-1.715253 -5.785565 42.08995 
0.3045852 -4.678723 43.27425 
0.9331994 -3.532438 41.69429 
58.51564 76.77998 -39.20426 
-10.55592 88.99897 -30.27809 
-16.05443 95.85046 -30.12694 
-15.26156 91.86607 -30.18345 
-18.91258 94.04903 -30.21374 
-16.92828 92.64326 -31.44862 
-17.88176 94.28168 -29.69728 
57.49213 74.06704 -36.54389 
-19.80322 96.74507 -28.83246 
-19.36324 94.66161 -31.69822 
-22.18408 95.04223 -29.80091 
28.93301 -30.43272 7.486709 
31.78553 -26.60433 8.167555 
31.80053 -28.58938 9.106419 
28.79768 -30.50727 8.289351 
7.616246 87.87107 12.81487 
7.775629 87.43863 7.262699 
-8.508141 66.50242 -29.90356 
0.4302596 -2.914181 46.27753 
1.121887 -2.692724 42.66765 
2.129719 -1.839611 44.88161 
-11.8359 71.43517 -27.40169 
-9.221541 74.58262 -27.71485 
-7.858603 73.67028 -30.63122 
-7.409573 71.05032 -31.66533 
-7.049372 70.44231 -31.92686 
-9.385519 70.65295 -28.33426 
-8.23049 72.78896 -29.95818 
-31.52525 -14.22655 18.21574 
-34.03692 -15.65431 19.3378 
-30.71729 -14.15609 18.46324 
3.624479 75.01449 -30.13043 
6.043127 74.33383 -29.57629 
3.85384 70.5728 -31.71581 
4.740512 73.17146 -28.43881 
3.879956 71.83817 -30.71645 
4.971767 69.52298 -32.50521 
-1.795632 72.3468 -31.74487 
-5.017288 73.41096 -30.17345 
-4.85559 75.17274 -30.9273 
-1.11553 74.45544 -30.5446 
0.8545995 72.50778 -30.63739 
-0.6909997 71.5613 -31.92172 
-2.368634 74.29156 -30.3606 
57.29657 81.69862 -30.43084 
60.73125 77.01121 -29.54762 
-9.495996 85.91936 -28.98401 
-12.71323 89.94063 -30.10216 
-20.92257 96.39813 -30.92833 
28.53685 11.61898 18.70534 
-1.466723 52.95543 -29.34026 
-0.8068499 51.60091 -31.99905 
-0.558349 51.49695 -32.02174 
0.649245 50.77038 -31.3166 
0.9824722 52.43478 -29.18473 
0.31089 53.35232 -27.28133 
-0.7138985 52.66669 -29.89511 
7.766363 37.98848 30.16766 
7.800701 36.98293 32.42151 
-16.74027 90.86659 -29.13698 
-13.87467 87.09589 -27.61072 
-13.16648 89.61618 -29.59402 
5.560525 55.25959 -29.94506 
5.786169 57.73188 -30.71125 
5.217767 55.53831 -32.43023 
-60.31968 57.31007 -29.76131 
-60.8746 57.99842 -28.0646 
-59.7485 59.86172 -29.74477 
13.89015 -34.52766 22.04477 
13.19691 -33.23198 22.20136 
-35.53286 12.8223 15.35979 
55.04616 66.43823 -28.93982 
8.206325 59.39321 38.05825 
3.000385 58.32273 39.8086 
8.626965 72.24376 -29.00741 
8.774144 70.52133 -29.43053 
-48.94973 71.05931 -30.99701 
-46.69492 72.53511 -30.57711 
2.297259 72.79823 -30.30603 
0.8035138 74.30246 -29.88816 
0.2957007 -3.899513 48.7664 
-6.598057 74.10078 -29.41885 
-7.061475 76.85007 -28.90826 
-4.793501 75.3427 -29.17253 
-52.99696 -51.25102 7.941979 
-51.02214 -51.4469 8.626094 
-3.85236 -6.07674 42.27217 
-3.108608 -6.871442 43.33552 
13.12237 -34.02357 14.97791 
12.05707 -31.82919 17.64466 
13.33869 -33.4054 18.74688 
28.61617 -36.7861 14.65719 
31.0734 -34.77575 15.45217 
29.03149 -37.46882 17.23116 
22.46226 -34.68711 29.88594 
21.32668 -38.76578 29.39414 
-10.82712 1.042076 10.73412 
-57.49451 55.80458 -28.77824 
0.8524613 2.448797 26.78534 
0.7795251 -1.153494 32.09664 
0.6203918 -0.7403622 30.26874 
-26.29846 43.76286 9.093887 
-29.0815 45.13154 8.33253 
55.45822 82.37751 -36.08156 
-9.449712 84.88416 -28.17079 
-14.86746 18.85302 27.46518 
-13.83841 15.41086 26.97707 
20.65649 46.15219 27.76561 
-8.189092 11.42101 28.86048 
-10.1515 14.80398 27.75749 
-7.729472 13.21281 28.18924 
21.31381 69.74872 27.4243 
21.48645 66.80405 23.60328 
22.48883 66.25216 25.71502 
26.86575 -44.5548 10.69859 
30.66717 -44.63728 9.584228 
31.39083 -46.55696 7.626072 
29.51842 -45.17749 8.553653 
57.72683 83.495 -29.24958 
14.58407 -51.42979 31.54768 
16.24553 -52.24301 31.36899 
2.419985 3.312667 28.98715 
1.34523 0.8603263 29.07307 
-57.54161 72.97204 -47.13942 
17.32027 30.44598 6.597982 
-13.77888 93.92006 -28.92156 
28.51847 47.18351 11.72994 
27.42176 45.83427 10.32583 
26.77398 45.35496 5.931398 
31.28875 45.68589 10.00821 
27.82051 44.83065 8.457585 
-0.761777 6.170192 21.31306 
-2.420532 5.012732 20.99237 
-5.957862 83.27293 28.45775 
-9.256253 80.81795 30.68699 
-6.88144 81.19203 31.93508 
53.88161 65.90713 -28.42586 
-4.311337 88.26896 18.92341 
-3.162927 88.23776 18.75868 
-1.216222 88.51532 16.93266 
0.243588 90.33613 14.97168 
-2.064214 89.10114 17.79301 
-56.6092 73.08627 -29.00656 
-53.59057 74.15189 -26.60146 
-53.80117 74.83104 -29.12466 
-53.17684 73.26125 -29.84594 
-5.950138 77.21391 -26.98265 
-4.48813 30.13334 32.52777 
-6.282909 31.6942 31.62535 
-27.15301 -35.44757 7.438635 
-29.36955 -37.15125 7.546464 
49.30571 85.40364 -29.10079 
12.66872 86.57011 -27.47419 
11.49365 83.87076 -28.81082 
10.86072 84.6435 -28.52379 
13.98378 88.73293 -30.18511 
15.37237 91.74491 -26.75047 
14.13874 89.73144 -29.06325 
6.71488 75.8736 -27.42169 
9.742837 78.25941 -25.93175 
-20.39052 80.09147 16.37595 
-17.24134 81.62051 17.90559 
-17.31635 96.37249 -27.48721 
-19.16719 96.88278 -28.28798 
-16.04897 96.34261 -29.35687 
8.819613 30.78061 30.66742 
9.009071 31.17572 32.00394 
7.520109 30.48427 31.15339 
2.647716 53.50363 -28.55133 
3.624889 52.95726 -31.1352 
4.886345 53.67962 -28.7996 
5.72681 56.54543 -27.30666 
4.138195 54.8518 -24.67528 
5.539739 54.82341 -27.87874 
-28.18009 18.38036 12.64585 
-25.45772 19.13824 9.18942 
5.978027 56.80015 -27.76969 
-36.8541 60.68554 7.143299 
-37.51474 58.71371 8.6529 
15.82442 -47.23908 30.29624 
-46.21581 64.95622 -29.24419 
-43.75427 60.26733 -25.7402 
-7.766476 9.168919 27.25144 
-6.515895 10.8509 27.29779 
-61.38288 68.1533 -27.75451 
-61.99484 61.07523 -28.99342 
-62.39445 63.8978 -25.59118 
-61.78009 64.23686 -28.67519 
8.823307 60.58319 -13.24724 
6.56746 60.39652 -15.47536 
-48.24229 72.88832 -27.09421 
-45.99267 72.86842 -28.34467 
-50.00692 73.56104 -28.7149 
-48.20091 72.53195 -27.3873 
-3.623863 4.542876 35.98499 
-23.35752 -46.75084 19.37921 
-27.82337 16.13492 19.14851 
-25.64104 17.94946 18.4024 
-11.18287 74.2243 -27.14405 
2.191122 1.616975 37.42936 
2.013087 -0.5411615 40.96396 
50.44747 76.78971 -26.35134 
51.22306 75.23959 -29.10708 
-4.822782 -0.5548608 38.85313 
-5.04763 -2.457903 37.54298 
-5.158632 -1.475925 40.88202 
-6.356452 -4.475103 41.52686 
49.55694 81.25358 -25.87353 
49.08046 83.33975 -26.49469 
49.40002 84.67212 -28.01203 
50.84904 82.80635 -28.98832 
51.55737 82.70009 -29.68739 
49.49093 81.8483 -27.42156 
54.33565 85.97424 -28.05672 
53.66256 84.48414 -28.00131 
55.31681 83.59934 -26.54345 
26.09848 60.5973 18.58081 
27.18052 57.07854 16.84711 
29.88409 57.80105 16.02503 
27.90683 64.0955 14.29613 
27.39387 61.38225 15.63539 
50.66945 88.1534 -29.7626 
52.79393 85.54446 -29.52856 
51.84421 88.44316 -31.05886 
53.19127 87.58784 -27.64453 
1.850221 21.58649 32.53079 
-9.592286 90.83106 -24.67285 
-9.915489 92.68293 -27.3342 
-12.85274 11.93596 25.98407 
-9.807213 9.638162 26.60024 
-10.89506 12.94435 27.29499 
-13.44322 14.2508 27.15002 
-12.37713 12.37067 28.12468 
7.448248 0.1026965 15.87592 
3.626554 3.038767 19.27391 
6.471677 1.509187 18.03515 
-31.64572 14.84895 9.265435 
-29.95629 14.91936 10.26987 
-28.50028 16.14747 10.25125 
-28.35287 15.44575 7.43837 
-28.64206 15.74885 8.563691 
-2.63158 51.59365 -28.11292 
-2.065622 54.15792 -25.83985 
-6.660941 57.03984 -25.26258 
-5.644003 53.87682 -29.81175 
-5.109166 52.25363 -30.04999 
-4.251691 54.31432 -27.02452 
-2.666819 2.623294 39.31536 
-1.390357 1.297413 43.31129 
-0.6714138 2.712078 38.74139 
-1.965752 0.5898936 28.03533 
-0.2846571 -2.039478 30.27836 
-2.922397 0.1629557 30.08254 
-6.89435 57.54875 -27.13758 
15.51342 -52.85813 25.33389 
19.09786 -53.21043 25.83594 
8.123924 70.15717 -26.30159 
6.267618 58.92114 -28.96885 
7.612527 60.29972 -25.39235 
-9.082433 65.99114 -29.22642 
27.26718 -10.32869 18.90679 
25.2632 14.44679 17.57281 
25.32645 13.20469 19.03308 
26.2764 13.67164 15.25399 
7.455173 73.2861 -28.18284 
0.535971 -5.660622 39.52726 
2.033285 -2.275341 36.9957 
1.785228 75.73074 -29.44016 
0.6330726 76.89568 -27.3045 
-0.1853552 76.6397 -27.50701 
18.74795 28.38899 13.46076 
18.5496 32.14188 15.31785 
18.89921 30.28397 17.88992 
18.53536 30.22015 16.71599 
2.729383 -3.359545 38.80276 
3.160668 -0.9155432 38.34575 
52.33089 84.34168 -31.11321 
-39.62191 58.65595 6.274802 
-41.87925 57.62583 3.500962 
-60.12278 71.28668 -33.89164 
17.44765 25.1586 13.42891 
18.13539 27.42239 14.44131 
17.62934 28.76233 16.86773 
16.80144 26.40717 16.27182 
48.99224 88.99889 -30.63895 
49.30059 89.20567 -29.91744 
49.80066 84.16295 -25.46347 
51.59995 85.11666 -23.94703 
49.72343 86.67728 -26.27448 
-0.6447411 2.260939 39.96387 
0.7682151 3.549091 35.98487 
1.466882 1.301994 38.99125 
51.8991 86.75133 -26.07667 
-2.916406 -5.493983 38.65134 
-4.165267 -5.086108 38.37037 
-3.168696 -4.927503 40.2396 
-0.4319645 58.32257 39.44733 
3.440911 59.30324 38.84975 
5.254951 61.30584 38.45915 
0.5634491 60.27344 38.40052 
32.49779 -27.94855 16.85991 
31.88093 -30.57933 17.26335 
8.941705 78.41274 -25.08483 
8.146306 81.98759 -26.82197 
19.34177 90.40908 -20.9201 
23.90434 67.26819 18.32537 
24.80558 66.08111 16.72658 
23.49484 70.35838 17.71828 
24.97395 68.94622 16.13006 
-61.14907 67.8131 -25.37932 
-59.70076 69.86094 -27.94716 
-60.18953 70.77986 -28.54087 
-58.524 72.02138 -26.41106 
63.39789 71.35563 -25.30068 
63.27517 69.47218 -30.21147 
63.063 71.27071 -30.11863 
63.66337 71.53928 -27.06788 
-31.69843 13.869 20.28639 
-56.10022 73.2742 -25.87943 
-40.18538 4.022403 7.488983 
-38.84313 3.704713 7.619898 
16.17085 -22.01937 6.638978 
-1.708332 77.93159 -27.22825 
16.31277 -8.373555 19.43619 
9.325079 83.18501 -26.67545 
9.036023 85.16808 -25.63186 
11.64713 89.27246 -28.00422 
12.06819 90.7941 -26.72578 
-13.32357 87.18031 -26.12317 
-13.88162 89.22944 -28.21268 
-20.86573 92.67548 -26.77226 
-20.11033 90.07771 -24.04806 
-21.47763 92.6488 -25.19474 
5.071613 13.54553 28.17727 
25.03907 -48.53074 25.80696 
21.98899 -52.69394 27.9114 
24.25178 -50.29711 25.87408 
22.98668 -49.81387 26.8321 
14.40505 89.28001 -25.57526 
16.59275 90.60479 -28.07586 
10.17737 65.25542 -25.2874 
8.285669 64.47332 -28.34674 
-11.89014 64.7578 -27.80784 
-14.67594 67.31228 -23.96947 
1.904555 84.69666 25.12098 
27.21843 -49.64707 25.61001 
26.60553 -47.21859 25.97963 
27.32615 -44.63254 23.88326 
-19.91158 33.01371 18.04738 
-6.603245 84.77425 24.64878 
-0.8021963 85.43951 26.54111 
7.631651 61.86253 -26.90662 
9.005578 63.38272 -24.93322 
8.626371 60.90369 -27.25901 
14.00312 26.37104 4.078484 
49.41869 61.88138 -27.38893 
53.31285 66.58476 -27.32637 
51.56334 62.49632 -28.50929 
-10.44524 91.27855 -22.99587 
-9.976873 93.42828 -25.35221 
-12.67321 93.49561 -27.25918 
-13.04101 93.734 -23.26669 
6.652843 65.63049 -30.49207 
9.81382 67.4663 -27.14748 
8.533392 64.81448 -31.12558 
9.502719 68.67242 -29.0296 
51.88233 73.55157 -28.78617 
54.82141 69.20768 -29.47135 
54.95551 72.09354 -30.50066 
23.29872 43.27777 14.27146 
23.33644 44.78349 16.58139 
22.74239 41.05853 20.07361 
23.31304 40.51859 20.10147 
22.93448 39.93523 15.01577 
22.23516 41.60833 13.56024 
24.22607 41.69421 16.33937 
-18.16522 -4.283545 19.3683 
-17.08692 -4.80975 17.09389 
62.14924 75.36068 -30.85547 
62.96367 73.11354 -25.83632 
63.54269 73.1975 -29.4882 
62.5319 74.33748 -26.03971 
47.69263 52.59956 -19.7709 
46.52872 52.6263 -20.73619 
49.21243 55.94785 -23.52699 
51.71311 53.54369 -21.5521 
47.16093 53.75195 -22.72808 
-41.39059 -19.07107 11.29913 
-41.97937 -21.21743 11.57252 
-42.18141 -17.82347 12.63449 
51.5992 79.83743 -29.08118 
50.65706 79.81255 -27.20022 
51.60171 80.92905 -27.68402 
48.65749 79.69503 -25.23644 
51.47858 78.66985 -28.6122 
-35.18995 -4.251951 16.93396 
-9.524829 89.75951 -26.97018 
-8.723095 86.63545 -27.70686 
-42.86359 54.71126 -23.40987 
-43.24849 55.90505 -23.05931 
-20.23669 93.50833 -30.12596 
-17.06069 92.44841 -29.61797 
-20.13048 92.20667 -28.21693 
-21.84413 94.09858 -29.49224 
-19.40075 92.97234 -27.45055 
57.38298 81.52847 -20.26162 
56.78384 78.2132 -20.26253 
58.69317 76.33485 -21.61506 
-3.591265 60.95296 39.9298 
-0.5757246 62.00234 39.62988 
-1.944651 66.49079 38.26132 
-7.539373 61.53461 38.90598 
-3.987394 62.01989 39.21361 
21.53133 96.78108 -25.88583 
17.47579 94.35594 -28.37697 
18.91186 96.18205 -24.02419 
19.29076 95.56362 -26.90068 
15.99896 -13.81036 16.7909 
17.38363 -15.41028 17.0701 
55.99736 64.68832 -26.72069 
52.43344 59.84595 -27.69121 
52.89666 63.11584 -27.00335 
55.21045 64.43403 -28.75296 
54.63384 64.42937 -27.51672 
58.4262 66.66521 -27.5114 
-28.67313 54.90874 -9.422015 
-28.11378 52.22467 -8.263468 
-30.76549 53.60936 -10.90174 
27.1912 63.40796 17.19086 
-49.32541 73.71576 -25.48249 
-52.52842 73.23503 -26.74457 
-51.43637 73.83826 -23.38463 
-49.78812 74.44649 -27.05803 
7.137024 76.38179 -26.59975 
7.427794 74.53123 -27.08104 
3.013447 5.505635 20.20257 
4.405689 78.96881 -26.32585 
3.795679 77.96011 -27.69662 
5.075642 76.1676 -27.96372 
-4.023015 80.75269 -25.79284 
-1.932736 77.44649 -26.76488 
-23.11028 -40.2197 17.62655 
-23.71801 -38.54117 16.85409 
-23.90422 -38.86479 19.80528 
-18.32798 29.17265 24.08756 
-19.6475 29.91521 21.49122 
9.136184 79.259 -27.10264 
11.6394 81.31499 -27.95429 
12.03867 82.99067 -26.68469 
11.22663 77.46085 -25.91257 
11.68896 80.64063 -26.49372 
-3.839675 6.306735 18.46858 
-1.120463 5.988976 12.45135 
1.354934 5.977493 17.34273 
-1.100931 7.279166 19.79473 
-3.606378 6.098702 19.94581 
-1.635777 7.334481 17.68934 
-33.54711 47.57276 8.33683 
-33.3533 48.71173 8.852424 
-34.20323 50.97668 8.668079 
20.75835 73.6208 24.34694 
18.42164 75.4798 26.89082 
1.605151 65.66175 38.02865 
1.523944 61.70174 39.10012 
13.13739 -25.69488 13.51619 
15.12902 -20.86403 12.25329 
13.28762 -24.12582 11.08895 
-21.2965 96.30457 -26.49333 
-18.83361 94.50586 -26.42846 
-18.4877 97.48025 -27.60136 
-18.24972 96.7132 -25.48219 
-4.757599 57.65662 -23.81934 
-2.828952 55.08625 -23.86555 
-3.517142 54.80456 -24.11609 
-4.042226 53.80079 -24.95359 
-51.07344 52.42056 -26.65919 
-54.53105 52.57582 -24.7916 
-54.23394 52.25233 -28.32432 
48.26997 57.61596 -24.68278 
50.186 60.65455 -26.81753 
48.6439 59.15632 -26.21287 
16.88266 -6.668579 21.16387 
13.50525 -3.499513 18.96041 
12.85237 -4.522978 17.17448 
14.90311 -6.347139 18.61139 
14.01547 -5.831766 19.21151 
54.90551 59.03069 -23.9365 
55.5282 61.2406 -26.03051 
-13.60373 -3.727314 11.64843 
50.07433 65.66354 -24.75226 
49.06173 61.14305 -25.52708 
50.18256 63.54188 -24.63863 
51.2754 62.63804 -25.99027 
-12.06487 67.55932 -26.42678 
-13.22327 69.33897 -24.76085 
-11.32349 72.7689 -24.0782 
-60.51083 71.34253 -23.63333 
-0.02009649 79.01121 -25.86728 
4.176406 79.17758 -26.16937 
-0.1255054 78.60878 -27.64334 
3.23759 78.9304 -26.0492 
58.10984 82.85625 -27.8348 
60.03075 78.96481 -24.76116 
60.76367 78.68255 -26.57331 
59.99372 79.92408 -27.65428 
59.267 80.48476 -25.26886 
-8.177295 80.11243 -26.08547 
-8.805801 79.64784 -26.52978 
-9.490211 82.79214 -26.63457 
-10.81568 86.0034 -28.87914 
-9.265703 83.09767 -26.29878 
11.73685 85.74747 -26.77287 
-40.74233 -31.74717 8.531748 
-40.53523 -29.39521 11.95301 
41.09969 54.59713 -18.46641 
43.12282 55.90293 -18.21808 
44.73471 54.84692 -20.24636 
42.20393 54.28617 -18.67519 
43.00067 55.51715 -20.29215 
-10.88402 47.31197 35.54805 
-12.0832 50.34766 36.98469 
-16.04491 22.16693 2.321866 
-12.90071 22.68538 0.2746335 
-18.85715 93.47682 -24.88273 
-17.11195 94.96967 -22.85307 
-16.3046 96.42448 -25.88608 
31.95985 0.136603 16.5191 
34.35286 2.513106 14.25318 
30.91038 2.508713 17.68143 
-14.36041 95.29047 -24.76652 
-16.07137 95.54996 -26.38078 
-14.02505 84.33954 -22.00807 
-12.53033 77.2 -22.16654 
-10.24911 81.15874 -21.97667 
-20.90401 95.5675 -28.00638 
-1.516927 58.06255 38.24457 
-3.62594 57.31964 38.52046 
-4.271467 53.08816 38.45441 
-2.710094 55.16478 39.44485 
10.10322 85.83614 15.43176 
8.321449 87.98492 17.91092 
10.0126 86.41155 17.70266 
-49.034 54.23666 -29.26664 
-50.25466 56.67798 -30.19673 
-48.32072 56.251 -28.53877 
-47.98072 53.56498 -27.10993 
10.25208 15.91702 25.94186 
-61.95729 59.33384 -25.75279 
7.479621 57.05209 38.06867 
5.310481 57.0504 37.4555 
0.5923053 56.64758 38.42085 
4.097704 54.73355 38.06593 
-7.599345 62.30416 -28.99988 
-8.014287 59.80345 -28.4547 
-8.711085 61.96204 -26.55634 
-9.704135 62.79317 -25.77527 
49.675 67.68792 -24.63894 
51.78605 69.29417 -26.02424 
-60.45427 68.24858 -25.0408 
-57.76817 72.08733 -26.18925 
-56.72231 72.33029 -22.83299 
32.55738 -19.12533 10.94269 
33.32239 -18.40618 9.422645 
30.99094 -17.29854 12.85065 
33.46954 -16.73534 10.74616 
-13.0033 71.08604 -21.82389 
-18.91266 80.88161 14.51859 
-16.70327 82.15393 17.91805 
-17.55516 82.58791 14.68497 
-17.01724 82.68821 16.00538 
24.70785 -52.66215 16.64367 
15.7671 -40.92526 27.15894 
14.98389 -39.06 27.36982 
50.09412 77.0028 -26.29555 
48.11391 79.44664 -23.93079 
-10.63617 80.15244 -23.07869 
-9.722888 81.13479 -23.31546 
-10.32601 85.53142 -27.11739 
48.77215 79.78252 -25.65072 
48.214 82.25724 -24.53806 
48.52017 83.34151 -24.6386 
-6.603344 82.72516 -25.47266 
-7.454354 84.11755 -26.06566 
-7.636596 86.84908 -25.41293 
-5.934011 84.34273 -25.21247 
51.98933 87.21198 -25.66531 
54.14394 84.57952 -23.86003 
25.80727 -52.75204 19.51511 
28.94486 -52.53605 16.9398 
29.38822 -54.64978 18.78148 
-7.408224 87.99055 19.34063 
-7.943882 89.23499 16.03163 
3.087469 88.32014 17.8388 
-54.49583 52.5239 -23.30919 
-53.57073 51.12946 -23.34944 
-52.36799 50.47772 -24.15417 
-9.271283 14.80961 28.49028 
-11.32083 19.12207 29.2136 
-12.47613 18.33534 27.52422 
-2.264644 80.69012 30.69475 
-1.103118 84.39439 29.01135 
-3.268612 83.14359 30.21545 
-6.025082 84.47785 26.95593 
27.77978 13.90728 18.08233 
27.23237 12.65231 18.31936 
26.52442 14.35427 15.09879 
28.57657 13.32838 17.38824 
27.31405 -24.2465 25.27995 
25.91053 -24.15363 26.57607 
59.57653 61.34125 -21.15184 
56.36732 60.80611 -24.53603 
58.54852 59.51542 -21.62432 
5.318016 36.38365 32.80029 
5.411258 36.71893 30.87137 
2.967527 35.3667 32.72181 
13.17774 85.17472 14.97783 
14.71721 83.35033 17.60268 
12.35791 84.86442 16.8462 
-37.74294 -42.67232 7.731102 
-36.28709 -42.07462 9.187769 
62.59061 67.30769 -25.6766 
61.00938 70.35756 -22.61021 
60.9251 66.70979 -22.2588 
63.0537 69.51034 -26.73774 
38.66953 -50.26388 8.932055 
-42.2237 71.11944 -23.78815 
-43.74717 69.19788 -25.22175 
-44.55117 71.45245 -26.35431 
-45.01739 71.55412 -26.99046 
-43.73347 71.19765 -24.99513 
49.90427 73.1807 -24.36953 
49.32367 74.92777 -25.99904 
-55.33791 73.17044 -25.5098 
49.75144 70.80897 -22.00543 
49.93952 75.36349 -23.09173 
21.93526 70.28744 25.99298 
-16.04623 45.44092 34.12059 
16.24787 -26.64094 26.19263 
14.62778 -29.31898 24.80423 
18.79872 -28.37575 27.95042 
17.18239 -29.61671 25.85275 
-5.200123 80.06148 -27.23199 
-5.035753 78.93458 -27.14635 
-27.84278 -42.27358 10.59034 
-22.27894 -10.80983 9.57133 
-20.71162 -10.12474 9.26537 
8.559355 87.78675 11.41522 
9.576514 87.01743 6.786363 
10.68234 85.60783 10.10328 
-12.28272 85.84039 -26.15261 
-57.74057 55.23955 -26.44016 
17.59438 -32.5164 26.70273 
15.29903 -32.53256 23.89221 
13.0923 -35.76319 23.98102 
-8.915537 85.0402 -28.36946 
-1.339273 65.24311 39.43534 
-0.2905431 68.06689 37.44211 
0.006157113 65.91135 38.93234 
17.37133 39.70754 23.68062 
16.70004 39.48085 26.97532 
18.41998 38.47416 24.25216 
-49.46019 -50.9664 11.09862 
21.51537 93.7758 -23.4255 
18.89674 94.59436 -23.57354 
19.52173 93.65575 -22.50465 
20.88628 96.15449 -25.36062 
-9.441459 59.23233 38.77087 
-3.760124 58.31381 39.47603 
-6.206308 57.78014 38.2533 
-45.4374 56.42809 -24.51127 
-47.0799 54.33437 -24.8686 
-44.75713 53.74212 -24.13383 
52.3766 55.12211 -23.70772 
53.68091 58.2807 -24.56528 
16.27553 81.07771 10.08411 
20.15355 74.99303 7.983361 
16.5456 80.68855 8.324764 
19.22625 79.04649 11.3431 
-8.693223 60.9883 -23.57425 
-7.296831 60.61412 -25.08102 
14.29441 78.43229 25.80763 
26.33432 -27.99133 26.84387 
29.60399 -25.75344 25.758 
27.15726 -27.00021 26.1904 
-25.39988 -36.88923 20.61085 
-25.36235 -34.72363 19.48048 
-26.94861 -32.2282 22.24161 
-26.52779 -36.22602 21.42303 
10.16759 65.09766 -25.17924 
11.83772 64.64465 -23.59358 
8.998277 63.2149 -26.03933 
13.19456 37.87772 26.23393 
14.68259 38.81907 25.93817 
58.21846 61.78806 -24.30002 
57.02223 63.79202 -26.16308 
57.82447 66.01552 -26.36669 
60.91749 64.61583 -22.98957 
59.22042 63.6632 -24.66132 
25.16528 50.59499 16.16985 
26.93005 54.32525 16.83363 
60.84241 66.70932 -23.11486 
60.5829 66.33029 -24.66926 
59.89483 67.70066 -27.43412 
-26.87733 -51.3996 12.16977 
-30.03495 -49.34115 8.350308 
-1.86933 53.31656 38.29903 
24.41103 69.98615 10.51442 
25.56962 69.60205 7.708622 
22.92196 72.55349 10.06991 
24.58687 72.1478 7.056589 
-0.8840581 80.48855 -23.08622 
2.520509 81.60516 -23.52478 
20.47301 92.68502 -23.66464 
19.97204 92.79628 -24.16975 
15.98144 43.90217 29.26986 
57.68644 84.44361 -26.34543 
56.62123 83.01566 -26.10383 
58.71495 81.49242 -24.22696 
48.35196 85.0531 -23.76021 
-12.06582 83.77245 -23.53214 
-20.43752 90.14015 -26.06225 
-17.46731 87.02206 -23.91752 
-18.03325 90.07742 -24.29493 
19.83983 -46.97145 6.850669 
-49.40371 49.9297 -25.05164 
-47.63792 52.18013 -25.17816 
-46.16552 51.99349 -25.04166 
-46.9566 50.39053 -23.49477 
37.30465 48.3246 6.331819 
37.12858 48.32865 10.44884 
36.57723 47.55104 7.66262 
-34.62174 -53.21139 23.00118 
-28.72896 -53.03431 24.65043 
-41.55581 59.04468 -22.37476 
-45.21943 57.66332 -25.86219 
6.193334 57.19104 -25.47814 
7.578475 60.42676 -25.08695 
6.089529 59.96253 -25.715 
47.42488 58.80681 -22.34628 
47.15066 59.78825 -24.15046 
48.20452 58.54499 -24.29077 
46.33471 57.08522 -23.23857 
45.8064 56.0125 -21.39081 
46.40934 58.41674 -23.88435 
-29.41671 54.73429 16.52481 
-28.19981 54.37865 17.8961 
-29.55046 59.87651 17.05058 
-29.20935 55.66878 17.3404 
21.53404 -45.15881 5.217598 
21.95035 -45.3561 8.250524 
23.56785 -43.6396 6.737101 
23.47241 -44.56575 6.767829 
33.79904 -22.08909 11.14789 
32.31693 -24.4243 8.985968 
-44.8401 66.98044 -26.80103 
-43.56565 64.7073 -23.17433 
-42.18969 62.16068 -23.97074 
-44.6374 62.94028 -27.29564 
-46.44771 66.39962 -30.95771 
-49.4404 69.72032 -31.88979 
-44.82344 66.15993 -28.59669 
-4.58843 55.54853 38.08739 
-45.84017 73.19924 -24.17216 
-27.86145 50.53198 17.23462 
-27.25438 46.33389 17.94194 
-28.31067 49.14538 18.73784 
-26.03467 45.87946 18.68274 
61.14158 65.74377 -21.06063 
7.01663 79.17976 -25.65252 
5.405142 80.09882 -23.98453 
7.250361 80.06184 -23.91096 
4.148318 79.1965 -24.50715 
-6.963147 59.34561 37.38081 
18.02089 39.52625 28.30978 
19.16289 41.75491 25.16102 
20.25959 41.85245 23.41889 
18.92585 79.78603 17.57743 
20.05695 78.3423 19.65004 
17.59878 80.09654 20.16563 
54.86347 83.10147 -22.31209 
55.17146 83.02842 -24.38238 
12.18166 66.34766 -24.04882 
9.570653 71.16183 -23.41507 
11.89235 68.60831 -22.26291 
9.890733 68.27094 -25.70984 
12.72543 67.34996 -11.49531 
11.61841 66.45174 -13.63447 
15.9856 67.23834 -13.84311 
16.0057 65.01148 -13.13174 
13.84503 67.355 -12.76136 
-58.61779 70.82595 -21.35585 
-60.59295 71.58501 -22.82104 
16.59456 -53.93372 23.26488 
-47.35691 53.23175 -27.08525 
-4.513473 5.412181 11.9995 
-2.026467 6.026024 14.14524 
-3.742556 6.331865 15.65812 
-6.318725 4.654276 15.83961 
-6.921626 3.418157 14.05279 
-5.671307 4.049746 11.17586 
-4.64333 5.371776 13.31049 
-22.90079 77.2104 16.71737 
-19.9229 79.91124 19.42285 
15.12233 -12.08313 13.78595 
13.9909 -11.42951 11.81309 
-39.42316 67.14542 -22.89213 
-39.87721 65.27349 -22.97583 
-41.37597 66.38298 -24.59539 
0.4745108 52.68464 39.63809 
3.745038 50.14557 38.58689 
-0.8948419 50.9203 38.07933 
4.522036 89.36122 15.993 
2.043393 89.99596 13.8361 
0.3783694 88.92686 15.98034 
-40.0977 -31.82677 7.058789 
-40.64342 -30.99159 9.295994 
-24.7067 -10.33087 16.26522 
-28.30976 -9.334542 18.56304 
-33.73724 -9.511019 16.6721 
-29.44492 -9.14317 16.17806 
-10.30734 77.67581 -26.61092 
-12.37746 74.52613 -24.03914 
-11.15219 76.61407 -22.65122 
-12.80387 76.16531 -21.63646 
-28.29148 69.68875 7.596571 
-27.33964 70.00664 8.837663 
10.26356 79.77226 -21.38012 
10.40461 78.95092 -23.6406 
9.450029 82.52833 -24.28883 
10.99764 81.95855 -22.82217 
4.481357 57.0062 -21.5963 
4.81017 55.49018 -20.78092 
-4.614753 80.93806 -24.38191 
-2.581701 81.15708 -23.35597 
-39.78661 -1.652566 12.43752 
-38.01278 -3.271347 12.79266 
-37.52789 -4.277864 16.14971 
31.0421 -32.52868 14.73919 
32.53934 -32.48594 13.78209 
30.93943 -32.49059 12.82126 
31.12935 7.458584 14.29204 
29.63857 7.399191 19.66255 
30.31669 2.968522 20.57606 
32.15181 4.186485 15.77052 
32.30915 5.307016 13.3611 
31.1728 4.8004 18.32572 
13.39338 84.26946 -22.7564 
17.18023 90.07053 -25.23832 
15.3265 89.11433 -22.54733 
13.29815 86.21644 -24.97878 
8.235596 81.56213 28.19884 
6.640891 82.67287 27.83952 
21.72166 45.80332 26.72736 
19.72248 90.40264 -22.36317 
18.50725 89.10707 -23.60147 
-22.13878 -8.349943 17.36781 
-19.61184 -9.055144 14.44174 
-18.75306 -7.142005 17.35825 
53.38764 76.84351 -14.95063 
52.18231 76.29543 -15.42465 
-2.007656 53.77911 -20.61954 
-46.03126 55.39465 -26.52494 
-3.595594 56.16014 -22.07516 
-5.796425 57.92032 -21.77302 
-6.972402 57.72926 -23.07633 
57.30351 82.34547 -28.60197 
-10.61651 65.28352 -20.4017 
-10.84677 63.15951 -22.98153 
-63.6706 64.65356 -22.02073 
-62.76461 61.236 -25.15111 
-63.02953 61.52513 -21.75126 
-63.05268 61.62034 -23.73898 
-42.85133 65.00976 -24.13105 
-58.24005 71.48694 -23.19147 
60.69083 69.81478 -21.41762 
61.17218 71.29824 -22.38448 
61.10261 73.97678 -24.08468 
59.22585 74.65936 -19.99201 
60.8867 71.63713 -22.16831 
9.33856 72.56017 -26.29799 
8.599999 73.72234 -24.10346 
-46.48148 74.03845 -26.76832 
-15.79351 27.09892 27.7948 
-17.2202 24.48068 25.09217 
-15.03981 25.37158 27.29284 
-16.79743 23.177 24.74852 
-15.4683 20.6962 26.74626 
-15.10838 22.09125 26.05949 
-21.73845 -30.00688 13.6047 
-22.83783 -29.98329 15.84996 
21.99636 72.62363 22.3167 
20.9432 71.9043 25.44547 
-4.615214 81.13846 -25.76109 
-4.694251 84.16515 -22.68551 
9.663884 88.50389 -25.32971 
6.709436 83.36181 -23.6243 
8.614279 84.32703 -24.95868 
-15.86892 85.55521 -23.20259 
-16.52994 89.7417 -25.87411 
-14.6891 88.30206 -24.50333 
-16.41252 89.48508 -26.95876 
7.143043 50.40755 37.06317 
8.336832 52.998 37.29755 
6.333416 53.11542 37.14952 
-5.442933 10.54481 30.67922 
-0.9674969 53.56701 -25.08414 
2.549796 54.58094 -22.25877 
0.6834219 54.58447 -19.97878 
1.481521 55.35006 -23.97551 
-57.3359 54.09511 -27.83126 
-57.13625 53.56775 -23.97232 
-1.19894 54.65578 -21.9864 
9.250799 71.97971 -27.16771 
-61.29591 57.71432 -25.45519 
-58.45511 54.04933 -25.37794 
-61.8951 59.26891 -23.99211 
-60.54946 57.43225 -24.80715 
45.73867 54.34654 -23.55571 
55.66143 56.0958 -21.73618 
55.03767 57.73978 -23.79437 
53.70195 54.88971 -22.2689 
8.682195 86.48535 15.14794 
-25.76763 -11.68043 15.74617 
-27.63599 -11.02309 16.78956 
-24.86382 -9.870539 15.5646 
-39.89409 -32.5673 9.744545 
-38.73057 -35.5802 9.79867 
-40.99524 -35.67622 11.10008 
39.20675 52.73162 7.70713 
39.16879 49.74544 8.947734 
37.14643 52.08119 10.86642 
11.81256 -27.84599 16.08034 
18.25131 -27.40503 25.88059 
-14.00231 71.94681 -20.72859 
-13.1348 74.43352 -20.88397 
-15.1578 84.00499 -21.96299 
19.90322 39.88385 23.74536 
19.63555 38.56715 21.80995 
15.05142 95.23376 -24.1681 
13.60636 92.37986 -24.47269 
13.87976 94.04832 -21.57585 
12.0188 91.05703 -22.96302 
50.31105 73.90843 -12.71794 
48.56356 74.22243 -13.86353 
25.6143 -36.04238 10.38585 
23.83369 -33.93828 11.49482 
-3.633122 5.989178 23.34115 
-3.463587 5.499977 24.31317 
-4.534138 5.767138 27.42938 
-3.571139 3.885424 28.23425 
-27.12301 69.03092 18.02546 
17.59975 24.25137 6.933568 
19.11713 24.74583 10.35167 
9.453683 63.18289 -21.70802 
-38.25473 -44.28215 18.45053 
-13.17139 65.14928 -23.64794 
-13.60974 65.65842 -17.75737 
-13.15698 64.5657 -22.22367 
-10.66396 63.82665 -26.02812 
-11.90054 64.38367 -23.44051 
-11.22232 64.03522 -21.23545 
23.80331 73.00156 12.77208 
26.0501 70.53088 11.08802 
-41.17107 -21.99861 16.34553 
-40.87261 -25.05653 13.28468 
-42.21681 -29.71347 15.54716 
-41.61212 -27.18874 17.86909 
-41.33795 -21.22938 16.8799 
-40.94595 -25.87775 15.90823 
16.91037 -49.81427 15.34108 
-37.71067 -11.98489 14.82395 
-38.70754 -14.1136 14.78903 
-38.09743 -13.67181 16.77596 
-36.36039 -14.34144 17.5749 
-36.86436 -12.50418 15.42107 
30.69476 -46.71481 19.09245 
29.73148 -45.80164 18.91371 
9.799503 78.13555 -22.53137 
-3.057664 82.03333 -22.62174 
2.270937 83.03745 -22.03748 
1.045352 80.60632 -22.32071 
4.188138 82.50005 -21.28417 
-43.99815 -50.12759 14.34113 
35.10276 -50.50235 16.85073 
32.40662 -46.46092 16.80541 
32.19864 -49.51298 18.5277 
34.97687 -49.69823 16.95693 
-14.01156 80.91888 -22.2856 
-15.56966 82.66462 -20.49013 
-10.04266 90.35375 -23.29043 
-6.557571 88.0749 -20.83005 
-7.744397 88.6118 -23.56616 
-6.608463 86.88918 -22.95634 
20.54763 91.88239 -21.93532 
25.43271 46.81879 13.35422 
-16.95542 19.45159 25.20569 
42.95553 53.97501 -20.94456 
29.71062 -27.46002 24.33755 
28.80921 -40.06212 24.42948 
25.42811 -39.67362 28.2241 
25.74628 -40.823 25.664 
28.48465 -39.5742 25.69725 
-16.09028 45.65439 33.35739 
-18.14383 46.80231 31.67749 
47.50033 62.36494 -21.46913 
47.64014 60.11917 -23.25111 
-24.48728 42.22406 6.552094 
-25.49045 41.49652 9.472355 
-62.01866 65.62817 -18.36513 
-14.2586 78.14392 27.98421 
-16.08774 78.08257 25.26431 
-34.99284 60.33521 8.394417 
-32.05182 60.78781 9.021334 
12.88461 67.08544 -21.18104 
-63.0592 67.73277 -22.52768 
-61.96309 68.95958 -20.80859 
-63.15094 67.35673 -24.35703 
-60.56554 69.92376 -22.44678 
-6.567865 0.7124501 36.93934 
4.828217 9.17342 25.17817 
5.475779 9.980085 27.69743 
4.516303 11.15292 27.78741 
3.002439 7.827217 28.13429 
45.95445 71.15023 -20.65252 
-9.362798 66.95293 36.6909 
-5.454279 65.46651 38.10501 
-50.14377 73.44377 -23.24654 
-50.69972 73.25959 -19.80069 
-48.52718 73.43845 -21.48939 
-47.84899 73.14347 -23.1366 
-47.70586 72.81902 -23.10752 
-47.36422 72.35059 -20.31005 
-46.6845 71.99522 -22.31685 
-54.03763 72.2308 -21.79384 
-35.76302 -17.71916 21.30486 
31.08649 -37.59929 22.12629 
-21.61909 23.4489 16.95014 
-21.33964 25.38172 15.91179 
-21.38956 26.08172 20.19014 
10.90611 71.45551 -22.4074 
11.16097 75.45129 -21.27628 
12.84491 73.07964 -21.60159 
10.98176 74.05739 -23.24079 
-24.56301 -17.69421 16.9124 
-25.95588 -13.71379 14.60941 
-27.39533 -16.33385 16.73841 
15.74288 31.23901 24.8528 
15.00059 26.90864 22.23578 
14.94792 29.24226 23.30362 
14.82923 29.49254 26.45996 
-15.81324 13.99475 26.57248 
-14.9341 16.29421 26.71168 
-16.84271 15.81877 24.60401 
-15.24836 14.30737 26.81449 
59.11969 77.41015 -23.02373 
59.29422 76.43405 -21.96274 
61.29907 75.21674 -23.57628 
59.61138 74.27641 -21.16967 
33.33916 58.1528 11.90558 
36.54457 58.37742 9.165485 
39.30035 60.75292 6.744476 
36.16176 60.22793 11.10421 
-43.28429 -45.5256 13.24713 
-45.38632 -44.63693 11.42378 
-17.29022 84.70992 -21.11445 
-15.23143 88.10958 -21.39436 
-18.98142 88.00146 -22.7265 
-4.450761 85.42546 -21.54632 
30.8278 -31.40756 8.679605 
27.46944 -34.43089 10.88563 
27.71148 -32.04203 10.14565 
-15.34641 67.9041 -21.03562 
-14.95681 66.57468 -21.09518 
-16.17538 66.15549 -18.41844 
-16.10944 66.82917 -15.30503 
-16.19328 68.66821 -16.51219 
-15.78759 70.50266 -19.63449 
-15.61939 68.64616 -18.93194 
-17.14111 91.60086 -22.26457 
18.5931 79.11281 14.83475 
-18.4424 89.65828 -21.83302 
-16.21117 91.23374 -21.60867 
-15.57184 94.56238 -23.97824 
-24.97126 -48.35559 14.77645 
-24.75552 -47.10677 16.4934 
-24.29855 -48.90184 18.09746 
-24.66216 -49.72577 16.92933 
15.91375 93.68518 -22.84492 
-50.7104 49.85209 -22.84309 
-50.76266 50.8597 -19.86244 
-48.78822 50.66747 -22.82563 
-21.93383 76.37524 14.94939 
-25.58745 71.062 16.10343 
-24.47666 75.63879 16.12854 
-24.73896 73.47156 16.98449 
-45.44615 49.4514 -18.5828 
-48.60798 49.72126 -17.08622 
-49.19654 50.65602 -19.72008 
-47.07058 50.64275 -21.75482 
-47.80797 51.19424 -19.46231 
51.65349 57.17076 -25.64103 
15.70382 -42.58311 25.1164 
-42.71873 56.36483 -23.0849 
14.76519 81.19975 22.03162 
12.19723 80.95954 25.28581 
46.47533 67.39764 -21.27227 
48.62929 64.65535 -21.64037 
49.14839 66.91615 -24.34276 
-42.33569 -47.11384 16.86592 
-41.61787 -44.46993 17.57557 
25.55895 60.859 22.03317 
-3.095831 17.15702 30.15866 
-2.280828 15.69557 30.62161 
-4.655697 84.9771 -20.19415 
-2.599525 83.09005 -20.99121 
-27.70975 56.60497 23.63436 
-26.78386 57.88743 25.48535 
-23.8982 63.83599 -11.97898 
-25.00688 61.39152 -9.490506 
-42.19803 52.45748 -22.50969 
-45.40966 51.27893 -23.54832 
18.1364 -37.46597 13.73819 
17.74036 -36.01719 12.66214 
17.07661 -40.86107 15.10331 
20.20907 -40.12482 14.09412 
23.60957 -20.00526 25.75982 
27.05286 -22.3418 25.22636 
25.86316 -20.19411 25.69608 
26.24121 -22.11822 26.04577 
-21.20431 36.5358 12.41382 
-23.45474 39.17112 15.02162 
-22.40468 73.13704 -2.790277 
-39.11299 58.9332 -22.60332 
-39.95036 56.90834 -23.21147 
57.93435 58.20029 -19.92212 
56.76553 57.65747 -20.89799 
-41.05773 62.78492 -21.84231 
-39.87183 60.56186 -21.09859 
19.26962 32.22387 12.22091 
60.39218 67.62762 -20.73059 
61.15185 66.21174 -19.70493 
60.37141 63.00977 -20.69553 
20.09248 -42.58381 14.46206 
17.33844 -44.11246 15.81359 
19.39197 -42.37231 15.86729 
20.82258 -40.54603 14.11096 
20.84822 -41.9869 13.94896 
-56.96274 70.45889 -18.64243 
-26.15312 69.00005 19.71327 
-22.84269 70.74374 23.39566 
14.54758 39.9437 28.66794 
-24.69625 64.61906 25.56118 
-22.05989 68.71109 25.98836 
-22.67449 71.09154 25.17615 
-25.09967 66.89684 25.2632 
10.3041 35.27681 29.64435 
7.027155 35.41151 33.01179 
8.611448 34.14082 30.78831 
6.424891 12.30493 26.78901 
10.6511 12.53729 27.01625 
53.96463 82.24305 -21.44758 
50.99289 84.37711 -22.94491 
52.56092 84.58099 -22.94208 
7.404036 85.17129 -21.6613 
7.483473 84.702 -17.65088 
8.221631 86.47497 -17.97875 
10.13729 90.62363 -21.72827 
7.861083 85.91924 -23.96399 
8.562407 87.16611 -19.4647 
29.30903 -4.777951 18.13888 
28.34001 -7.536849 17.72774 
22.55511 59.46602 26.17454 
23.32006 55.89286 25.74216 
24.01029 45.70659 14.78808 
-45.83948 49.99167 -21.09385 
-26.50366 44.21733 17.03944 
-7.854189 59.16661 -18.78 
-7.356251 60.92357 -21.94362 
-4.852958 58.28751 -20.93233 
-6.190297 59.06298 -19.54334 
6.934354 62.72909 -18.90634 
5.516978 59.09164 -19.92515 
7.084598 61.76742 -22.5471 
9.307899 63.62982 -22.98287 
9.341764 63.79511 -20.5132 
6.89294 61.60123 -21.8751 
6.394424 5.036465 20.68957 
8.168158 84.64159 21.01249 
6.694463 87.67419 21.50245 
9.215557 84.82111 19.41001 
-38.7376 65.43002 -19.745 
-38.67495 64.43332 -20.52824 
-38.7543 66.10994 -21.91829 
-38.93567 65.23281 -20.79676 
2.473033 0.2243767 35.54526 
3.818622 0.07074554 32.23115 
-53.99524 70.26407 -18.39207 
-53.45476 72.7693 -19.95548 
51.0476 81.78824 -20.61876 
49.24368 80.63493 -22.4421 
6.89933 83.3026 -20.83378 
4.739411 80.83801 -22.85504 
19.52034 59.6848 31.40981 
-18.0411 68.94019 32.15424 
-1.753841 83.61342 -20.79086 
52.49073 77.19762 -16.42495 
53.66641 78.09338 -17.64132 
-23.43553 42.58744 20.95623 
-21.04224 40.92112 25.55076 
-19.31416 40.64581 26.2135 
15.25708 84.88353 -22.21291 
17.13746 87.48013 -23.0319 
18.27014 87.88105 -21.90334 
16.13114 85.1062 -21.00342 
-37.49763 51.31696 8.24158 
-35.77935 54.13157 10.32215 
-35.87171 59.1673 10.23068 
-37.46959 55.56097 9.983871 
19.99536 37.02428 6.396933 
-18.06451 11.45426 26.30419 
-15.41166 11.74426 26.98465 
-53.613 50.8042 -19.71753 
-22.97366 -27.88636 14.6142 
-20.38815 -24.78822 12.06207 
-21.7122 -24.91953 16.84422 
50.35065 52.47196 -21.10003 
48.30638 52.36177 -18.47437 
5.479 58.44677 -22.96022 
-0.8885629 49.15615 38.42186 
6.279111 58.94311 -22.42003 
-61.48149 66.45692 -19.58706 
-35.45847 -44.79605 21.32095 
-37.42731 -44.16149 20.61557 
-29.03633 8.178711 0.7463793 
-29.91608 4.637611 -0.9699193 
-34.09995 -45.12291 24.03925 
14.34818 78.96382 -19.28965 
13.96008 82.82405 -20.90774 
16.24837 82.42844 -18.91497 
13.12865 79.14151 -22.40546 
58.33946 81.05714 -23.55478 
-33.7127 62.97861 -10.95555 
-30.66069 63.55804 -9.806772 
-0.7552733 84.28153 -19.67527 
28.82468 -11.98604 16.70768 
28.59295 -9.300783 16.06741 
18.34589 -14.01156 17.73034 
17.82216 -12.57324 17.99174 
-34.69794 -12.36531 16.39948 
-33.76221 -13.8341 15.9894 
-30.81473 -11.40365 15.96069 
-5.846013 86.35091 -20.65658 
4.788654 7.160852 24.84317 
-11.58102 92.61136 -20.7164 
-10.11633 88.56727 -18.79001 
-9.068699 90.50944 -21.1271 
-7.316663 86.61894 -19.15336 
-17.73598 72.47002 30.39865 
-16.50812 70.33424 31.55403 
-15.01546 73.11288 30.97826 
-44.36753 49.53853 -17.68097 
-38.50882 54.49573 -15.74532 
-40.47376 52.19613 -17.32103 
-41.3662 54.46137 -22.71105 
-39.57523 54.96115 -22.58429 
-39.55382 55.9984 -20.80793 
-40.9336 53.48645 -18.39539 
-41.75412 53.42788 -22.14508 
-41.52603 54.09582 -20.88717 
-24.21902 -41.21321 18.99663 
45.79481 58.00099 -19.29586 
45.64951 57.49753 -21.79141 
47.24227 59.20835 -21.23951 
-5.557488 56.15358 -19.45523 
58.60358 71.23775 -16.06124 
59.58592 71.94417 -16.45194 
-39.7709 62.33786 -20.97191 
-39.72443 63.5512 -21.70683 
1.231754 50.04342 39.30822 
0.1161077 47.92984 37.7592 
32.36385 9.756845 13.00843 
29.50921 9.729421 16.65299 
-13.67223 9.69627 25.76907 
-10.18077 7.792517 24.23325 
-10.44337 10.1521 25.35675 
-57.61018 69.64708 -16.68815 
-54.60044 70.76096 -19.29445 
-11.09802 79.44562 -18.87861 
-13.73413 75.69592 -20.27638 
-12.61057 77.95341 -18.91381 
-11.97009 76.50889 -19.74852 
55.59198 80.20615 -18.25158 
53.74556 81.82211 -19.9781 
54.44984 79.50578 -18.31043 
55.30581 82.09234 -20.46176 
14.0576 -7.757309 9.642924 
10.92031 -4.282104 8.621225 
32.4278 -31.57477 13.67277 
30.78959 -29.854 13.84422 
33.15106 -30.39991 15.35668 
-43.13925 51.47576 -19.34495 
28.11925 64.67776 11.5408 
-0.7016677 53.36295 -18.18489 
-0.9869187 54.28141 -20.16935 
-39.4912 56.78346 -22.07882 
-39.12296 54.16496 -17.65737 
45.79852 59.81321 -18.1537 
56.47832 55.68463 -20.15591 
58.09094 56.53662 -17.92586 
57.51319 56.45795 -18.54741 
-39.70036 66.46088 -21.85437 
-41.61839 67.71258 -22.49505 
-43.31525 70.39822 -21.49496 
-41.69163 68.56567 -19.34851 
-41.24943 69.58869 -20.97037 
-0.7451456 2.963173 24.61881 
47.11702 71.83031 -19.85864 
-14.6467 75.69601 -17.99931 
49.90601 77.52727 -20.8 
49.09128 74.61598 -21.62452 
49.85561 80.03571 -19.27848 
48.71213 77.73473 -19.95184 
16.86436 -29.02297 7.262896 
13.45099 -26.4134 9.68328 
15.14026 -23.80087 7.691494 
14.84495 -27.60942 8.028759 
18.44078 63.72633 31.04965 
18.26136 63.32244 32.0938 
3.421788 71.05717 35.71994 
2.380363 69.19242 37.36425 
50.53084 78.87303 -18.93216 
-1.900867 66.69607 37.67919 
-6.22692 68.71922 37.79224 
-12.48553 92.10497 -21.60928 
-44.51469 51.69384 -18.00851 
-44.28983 -46.31991 13.73466 
-41.72469 -45.5924 14.20628 
-16.88176 5.483088 24.21788 
-17.6399 8.917975 25.86657 
-20.3748 8.333685 25.52234 
-20.12769 6.657151 25.68703 
-16.82424 7.577301 25.57298 
-41.21861 -30.27927 8.614424 
-41.76818 -27.72135 11.14086 
-41.48379 -26.32047 8.463257 
-23.75939 -43.645 16.98885 
-25.90304 -43.55424 13.00844 
-60.99574 62.12029 -17.90461 
-61.82623 58.31487 -21.00127 
-62.78761 60.22225 -20.65935 
9.771382 64.12021 -17.07387 
2.742679 66.57227 36.73953 
6.447744 62.34299 38.16282 
6.225533 67.00843 37.80304 
4.022297 64.5458 37.93776 
-47.66862 -52.13968 11.78493 
-46.03006 -51.74354 14.02469 
-42.61294 -53.29372 15.27168 
-48.67215 72.513 -18.99339 
13.55501 75.18216 -19.03175 
11.45422 76.1422 -20.34147 
12.28659 77.01073 -14.66514 
13.5022 75.28321 -17.91954 
-23.36213 -48.81624 20.74623 
-23.55341 -46.01629 21.00505 
-23.33397 -49.33911 21.75306 
-10.72426 61.49355 37.56137 
-11.01688 63.58981 36.37458 
-8.85222 65.0788 37.66949 
-13.03069 80.69775 -19.78372 
-27.79003 18.61924 16.33666 
15.48854 82.1603 -18.12902 
16.54638 87.27264 -19.67138 
17.12115 85.19085 -20.71903 
-10.15513 82.71889 -14.59086 
-7.240385 85.53295 -14.58347 
-10.93379 81.53889 -16.97735 
-9.246719 85.20284 -16.2868 
12.5506 90.78806 -21.19251 
9.792864 89.69434 -19.98121 
16.79531 91.36059 -20.9428 
13.14108 88.42817 -18.78562 
-12.46158 55.68819 37.04907 
-11.4037 53.74055 37.97205 
-8.302466 56.30706 38.63476 
-12.06106 55.46066 37.3487 
-21.42187 71.66836 25.66743 
-1.60649 54.57012 -18.44901 
56.24045 53.8487 -17.60879 
-12.17725 53.20251 36.97679 
-9.362941 48.81639 36.72871 
-7.455443 52.08934 38.66455 
-11.93967 31.44111 29.17107 
-8.846062 31.28869 31.08405 
-9.309894 34.93913 31.99972 
23.21284 63.85091 24.985 
22.73561 62.55421 25.75683 
22.80379 60.28926 26.5773 
-14.30939 73.43997 -18.29582 
-15.91195 71.33456 -17.61322 
-15.10914 73.07824 -18.94732 
58.77404 71.80532 -18.41574 
58.3632 71.29498 -19.78033 
45.22617 53.73685 -19.45801 
-24.6354 49.85874 24.47764 
23.76874 51.81454 24.71092 
21.99371 47.91302 25.12782 
21.65039 50.18759 25.5393 
23.37496 51.70707 26.16667 
-13.70192 84.60559 -20.04465 
18.79452 77.82828 23.26356 
16.62047 78.09457 24.0069 
15.63027 78.41661 23.5511 
6.139666 47.40621 37.26078 
8.387929 47.91865 35.6368 
0.9116201 83.87476 -19.42222 
4.961468 83.24409 -18.10561 
3.658733 82.77258 -19.7566 
5.002891 83.33451 -18.87839 
9.366601 85.48327 -16.92197 
-27.37066 -37.52581 7.999794 
-25.56822 -40.71469 11.83961 
-26.51732 -42.62238 11.19527 
-28.98569 -41.24492 9.991184 
-24.86929 -38.58243 10.6807 
7.419163 85.26856 -15.3205 
3.807115 85.21282 -12.70129 
4.090625 83.45006 -14.41885 
-9.179373 86.83103 -15.78089 
-11.51213 87.16515 -16.75699 
-11.95443 89.04294 -19.62535 
-45.71459 49.35689 -18.03968 
3.260935 54.95688 -19.36709 
3.46225 56.01798 -19.34025 
4.721459 57.42064 -18.87039 
26.486 63.65976 14.81296 
27.81458 65.85953 12.69308 
25.374 67.37916 14.34306 
-35.64054 59.07838 -15.16098 
-38.66645 56.66904 -18.7201 
-38.46297 58.41364 -19.71035 
-39.00085 61.68273 -17.42298 
-37.27859 59.33509 -17.29683 
21.57678 42.30487 -1.71823 
-37.94622 61.98223 -19.16056 
19.89071 -47.50676 29.68835 
20.23748 -48.02897 29.90955 
22.47342 -45.46932 29.35216 
23.09372 -48.87989 28.32809 
-39.36317 68.52145 -19.0463 
-39.93444 65.34623 -16.5871 
-38.05325 65.01898 -16.7498 
12.778 67.93058 -16.93402 
11.18886 67.20035 -18.54041 
61.58952 68.56718 -16.71483 
61.59459 67.27084 -19.5795 
52.25463 51.57467 -14.75365 
53.81828 52.72258 -17.01515 
54.01314 51.64033 -14.7926 
14.58943 72.23557 -16.27662 
12.52616 73.6974 -19.99235 
13.59564 73.59528 -16.36131 
12.33019 70.92416 -18.21231 
-28.98022 61.91195 15.84242 
-30.58565 63.52684 15.80283 
-30.59377 63.51269 13.16231 
-29.70905 57.9134 14.74244 
-29.4859 58.80199 15.12 
-29.94639 62.47693 14.58213 
-52.12419 70.94461 -18.51815 
-49.89926 70.59932 -16.44703 
-12.07596 49.45165 37.52271 
-38.73102 56.31831 8.837105 
-39.01875 53.3154 7.075684 
-39.23564 55.49083 6.696451 
-10.8081 81.64036 -17.27641 
-13.30295 85.82153 -18.3779 
3.653599 49.92464 38.0421 
3.741052 46.80248 38.13805 
47.04728 50.54594 -17.11987 
45.42252 51.4612 -18.0919 
-58.56702 55.341 -22.88189 
-56.63771 52.61561 -22.03656 
-59.7648 55.4848 -21.9958 
-58.56952 54.75498 -20.5078 
-61.11879 57.91499 -22.97437 
-59.72896 54.88481 -17.42278 
-60.84771 56.88145 -18.84505 
-59.56092 55.6188 -19.58052 
-20.59851 30.39149 17.86447 
-21.48894 31.82999 17.1763 
-48.56844 -46.34985 6.910241 
-46.77386 -46.08397 8.508121 
11.03795 87.23385 7.162833 
57.38266 54.55205 -15.60091 
55.61447 53.93481 -16.04061 
-27.34183 -52.2928 13.18798 
-30.69565 -54.68607 8.67262 
-30.01074 -52.42136 8.23601 
-30.98208 -52.48827 6.007242 
-38.66768 61.28067 -20.34711 
-6.754107 59.78257 -18.7818 
59.84886 57.98382 -16.29099 
60.1318 59.55791 -19.54304 
-20.83075 -10.64892 11.22964 
-22.35266 -11.50389 14.43699 
-22.39661 -12.53646 10.68983 
-23.40279 -12.99847 11.22835 
-13.04971 65.61234 -14.97426 
-12.30232 66.0649 -14.93955 
-12.05326 66.16578 -17.45027 
38.88696 -48.7287 8.612344 
37.20695 -48.96178 9.113323 
-49.82584 -49.25419 6.72724 
-50.72319 -49.91324 10.05849 
-48.76876 -47.23674 10.35086 
15.93104 20.97284 22.69215 
33.57108 -52.45045 18.55134 
35.39158 -53.10196 15.55572 
43.79969 69.43798 -16.00682 
44.86662 71.79653 -18.33055 
9.623756 -2.348896 13.91356 
18.06314 -20.34571 6.627789 
15.88754 -20.11419 8.80277 
15.79789 -18.87862 10.19043 
16.91682 -16.14253 12.05841 
16.24253 -12.83503 9.897714 
17.04475 -16.6023 8.564204 
49.53888 76.88022 -15.55886 
49.55561 77.1049 -17.34711 
48.26488 75.40347 -20.46873 
46.83101 75.13307 -18.94201 
49.17374 75.67047 -15.13875 
48.46931 74.46243 -17.94958 
-28.39455 16.19395 14.55856 
